# .PCD v0.7 - Point Cloud Data file format
VERSION 0.7
FIELDS x y z intensity
SIZE 4 4 4 4
TYPE F F F F
COUNT 1 1 1 1
WIDTH 1301
HEIGHT 1
VIEWPOINT 0 0 0 1 0 0 0
POINTS 1301
DATA ascii
0.74807817 -2.570358 -0.16334714 100
1.0529968 -2.5166142 -0.16581488 100
1.3101697 -2.5088768 -0.16599022 100
1.6138675 -2.5528386 -0.16561913 100
1.9027065 -2.5384641 -0.16593157 100
2.303982 -2.5513184 -0.16628076 100
2.559427 -2.5136697 -0.17057221 100
2.8867483 -2.6065495 -0.17106347 100
3.1419113 -2.5517349 -0.17083316 100
3.4752769 -2.5602467 -0.16997257 100
3.7840452 -2.5441744 -0.16849896 100
4.0562382 -2.5435526 -0.16947848 100
4.3865428 -2.5777426 -0.17078596 100
4.6323094 -2.535388 -0.17215905 100
4.9262919 -2.559365 -0.16865437 100
5.2998042 -2.5876851 -0.16550364 100
5.6428618 -2.5406573 -0.17257029 100
5.8877106 -2.5218713 -0.17029035 100
6.2613702 -2.4149694 -0.17327838 100
6.4010453 -2.543664 -0.099161617 100
13.348321 -2.5246325 -0.15873446 100
-4.0667691 -2.2841406 -0.1117053 100
-3.8745918 -2.3962264 -0.16561903 100
-3.477947 -2.3012762 -0.16018222 100
-3.2012413 -2.3512619 -0.15847918 100
-2.8140683 -2.1136949 -0.15947594 100
-2.3547964 -2.2551475 -0.1676462 100
-1.9787267 -2.3000195 -0.16129841 100
-1.3576453 -2.2248986 -0.16207737 100
-1.044081 -2.2147157 -0.16459274 100
-0.73867667 -2.3120334 -0.16351959 100
-0.46006936 -2.2991519 -0.16379614 100
-0.14825349 -2.2061937 -0.16443165 100
0.16930369 -2.2519908 -0.16445783 100
0.45657039 -2.2220907 -0.1653017 100
0.78019851 -2.2348437 -0.16690004 100
1.0548259 -2.2592421 -0.16609509 100
1.3493822 -2.3140957 -0.16651534 100
1.5956107 -2.2358668 -0.1671384 100
2.0021954 -2.2921951 -0.16694327 100
2.2533987 -2.2377179 -0.16922589 100
2.5774839 -2.2539728 -0.16832349 100
2.8297436 -2.2009876 -0.16769271 100
3.1424308 -2.2050071 -0.16823553 100
3.4273627 -2.2026832 -0.17065996 100
3.748306 -2.2058964 -0.1715437 100
4.0644403 -2.3029623 -0.16893154 100
4.3856459 -2.2542298 -0.17289917 100
4.6628757 -2.2494338 -0.17343867 100
4.9502172 -2.2425144 -0.17306532 100
5.2522616 -2.248564 -0.17206405 100
5.8091145 -2.3009915 -0.172602 100
6.2032962 -2.2609394 -0.13827592 100
6.3587666 -2.2192869 -0.10293122 100
18.844788 -2.2666211 -0.079745404 100
-4.0454273 -1.9518211 -0.10981579 100
-3.5014014 -1.9437567 -0.16045922 100
-3.0051379 -1.9825851 -0.16096278 100
-2.7810605 -1.840978 -0.15953678 100
-2.5447614 -2.0542381 -0.16578434 100
-2.1324053 -1.9964769 -0.16174977 100
-1.9736414 -1.8880584 -0.16248839 100
-1.6393162 -1.9759768 -0.16575415 100
-1.374149 -1.9730175 -0.1628736 100
-1.0649847 -1.8896646 -0.16337207 100
-0.81757659 -1.8989744 -0.16447996 100
-0.47861978 -2.0009599 -0.16475002 100
-0.12924783 -1.8435836 -0.16546896 100
0.092231758 -1.9730158 -0.16511108 100
0.4627718 -1.9293306 -0.16686623 100
0.71361488 -1.9551289 -0.16598777 100
1.0574143 -1.9326664 -0.16671866 100
1.3518844 -1.9313722 -0.1673595 100
1.6482774 -1.9701172 -0.16647924 100
1.9240574 -1.8889084 -0.16996361 100
2.3161683 -1.9323105 -0.1684721 100
2.5272942 -1.954344 -0.17025369 100
2.8596611 -1.9417498 -0.16795558 100
3.1486223 -1.9735224 -0.16847563 100
3.393625 -1.9129081 -0.16955325 100
3.7519069 -1.9114885 -0.17064041 100
4.0074325 -2.0548618 -0.17159098 100
4.3649378 -1.9511528 -0.17339714 100
4.658216 -1.9740124 -0.17337735 100
4.9982309 -1.9580524 -0.17220931 100
5.3021045 -1.9508246 -0.1720811 100
5.5237789 -1.8562708 -0.16784833 100
5.8933744 -1.9865527 -0.17064179 100
6.0568275 -1.8666086 -0.17366637 100
6.4592576 -1.9472955 -0.15218757 100
6.6969929 -1.9286056 -0.11036377 100
13.420048 -1.9448195 -0.12298787 100
14.022751 -1.8927622 -0.099280022 100
14.65943 -1.8659418 -0.10798534 100
15.053552 -1.8196583 -0.00094109337 100
15.46506 -1.83684 -0.066699594 100
16.04203 -1.9207072 -0.053972032 100
16.398506 -1.991387 -0.024351966 100
16.735062 -1.978773 -0.024788681 100
16.942911 -1.9439292 -0.12845026 100
17.120077 -1.988317 -0.027680444 100
17.870724 -1.9846165 -0.032016475 100
18.064564 -1.9436214 -0.10030749 100
18.373009 -1.8246759 -0.12621452 100
19.128714 -1.8372328 -0.054874599 100
19.477238 -1.8276862 -0.064483091 100
19.628328 -1.9292192 -0.06023255 100
19.957045 -1.8493944 -0.06888441 100
20.486744 -1.8910397 -0.063293032 100
22.498314 -1.9797798 -0.083135262 100
-4.0915971 -1.5107594 -0.092593603 100
-2.5464141 -1.6167443 -0.16132775 100
-2.2691133 -1.6773578 -0.16258037 100
-1.6735783 -1.6464608 -0.16668308 100
-1.3976456 -1.6559551 -0.16306311 100
-1.0474336 -1.7001792 -0.16472447 100
-0.73576689 -1.6441976 -0.16405964 100
-0.40633842 -1.6471801 -0.16539589 100
-0.15464959 -1.6334974 -0.1656865 100
0.15926185 -1.6386354 -0.16616181 100
0.48242787 -1.7073847 -0.16469015 100
0.71604174 -1.6333796 -0.16738348 100
1.0612 -1.6259283 -0.16742985 100
1.3990507 -1.6334562 -0.16718106 100
1.6171194 -1.6297336 -0.17023231 100
1.9319247 -1.6249162 -0.16976675 100
2.2441161 -1.5670909 -0.17054851 100
2.591881 -1.6645252 -0.16761597 100
2.8347545 -1.6602572 -0.17006294 100
3.1618364 -1.6812977 -0.16806713 100
3.4250898 -1.6738043 -0.1701999 100
3.7237391 -1.6379504 -0.16615947 100
4.0088248 -1.6419009 -0.17120914 100
4.3591061 -1.6421002 -0.17260571 100
4.6325455 -1.6518835 -0.1719211 100
4.9004998 -1.6385449 -0.16967478 100
5.2628121 -1.6708533 -0.17025776 100
5.5823727 -1.6565148 -0.17473045 100
5.8934202 -1.6071892 -0.14529048 100
6.0816293 -1.587559 -0.080132827 100
6.4538846 -1.6317793 -0.1302962 100
6.7189875 -1.6998656 -0.076585598 100
13.743196 -1.6943406 -0.094355725 100
13.979512 -1.6535833 -0.10757516 100
14.283627 -1.690207 -0.097423308 100
14.472135 -1.7124263 -0.099634618 100
14.862622 -1.7463177 -0.12427331 100
15.023385 -1.7989098 -0.0436293 100
15.921202 -1.7531008 -0.14985473 100
18.598066 -1.685624 -0.083089598 100
19.945015 -1.7211874 -0.078982927 100
20.21463 -1.7040374 -0.098476656 100
20.515535 -1.6480315 -0.089521989 100
20.898367 -1.7157487 -0.023859467 100
23.882984 -1.6004566 -0.0037901613 100
-4.1361227 -1.2376535 -0.14182419 100
-3.8650665 -1.2196203 -0.15772302 100
-2.4285631 -1.395601 -0.16059442 100
-1.9237908 -1.2955079 -0.16281168 100
-1.669387 -1.3517637 -0.16339982 100
-1.3773869 -1.370576 -0.16684698 100
-1.0653342 -1.3524477 -0.16607858 100
-0.75510609 -1.3171407 -0.16451553 100
-0.44015026 -1.3986157 -0.16486353 100
-0.12672998 -1.3146161 -0.1658957 100
0.14470904 -1.4194678 -0.16541177 100
0.45344168 -1.3901684 -0.16640842 100
0.76054001 -1.3057964 -0.1694908 100
1.056627 -1.34464 -0.17742422 100
1.3555639 -1.3198799 -0.16834086 100
1.7152402 -1.3253168 -0.16812006 100
1.9462165 -1.2987528 -0.16910326 100
2.2634182 -1.3593968 -0.16804916 100
2.6044316 -1.3632542 -0.16867892 100
2.8942955 -1.3991503 -0.170046 100
3.1610808 -1.3778082 -0.17087461 100
3.4440887 -1.3284709 -0.16772257 100
3.714653 -1.3627932 -0.1699784 100
4.0137048 -1.3591784 -0.164287 100
4.3323851 -1.3883998 -0.16713712 100
4.7412171 -1.2900721 -0.17336495 100
4.9553914 -1.3119531 -0.17405763 100
5.2546506 -1.37345 -0.17541973 100
5.4047203 -1.2741035 -0.17323457 100
5.8781657 -1.3374343 -0.10944089 100
6.7998433 -1.4647537 -0.023054365 100
14.350104 -1.4046192 -0.16213788 100
18.960539 -1.4599332 -0.14529078 100
19.50963 -1.3053 -0.15584582 100
20.019575 -1.3937279 -0.13924672 100
20.234976 -1.3620828 -0.15613052 100
20.548035 -1.4764434 -0.12472715 100
20.900826 -1.3258728 -0.060765028 100
21.061239 -1.2828037 -0.076341107 100
23.91086 -1.4876031 -0.11573913 100
-4.0821023 -1.0665876 -0.079257555 100
-3.3536761 -0.94594491 -0.1579006 100
-3.0926111 -1.0008391 -0.24269746 100
-2.2257643 -1.0201112 -0.18472095 100
-2.0077538 -0.98311663 -0.16739784 100
-1.6741884 -1.0717399 -0.17496529 100
-1.2864845 -0.98571616 -0.17414054 100
-1.0260746 -1.0668662 -0.16603495 100
-0.75822663 -1.0693007 -0.17013153 100
-0.42100137 -1.0686704 -0.17268859 100
-0.15251592 -1.0674852 -0.16608873 100
0.168413 -1.1246295 -0.16851258 100
0.45566905 -1.0877393 -0.16747642 100
0.80123031 -1.0437344 -0.17554627 100
1.0640225 -1.0242628 -0.17047171 100
1.4114221 -1.0857106 -0.17070363 100
1.6499966 -1.0347502 -0.17128254 100
1.973088 -1.0169356 -0.16959989 100
2.1261137 -1.1333939 -0.16931686 100
2.5584726 -1.0349271 -0.16876349 100
2.9192681 -1.0492243 -0.17083627 100
3.1557882 -1.0965188 -0.1689474 100
3.4233284 -1.0183289 -0.17187651 100
3.7437391 -1.0381595 -0.17264915 100
4.1017885 -1.0402501 -0.15982638 100
4.3110247 -1.0397638 -0.17151298 100
4.6286087 -0.99015886 -0.16627167 100
4.8985591 -1.055166 -0.17352103 100
5.1841927 -1.0614564 -0.1724544 100
5.4701934 -1.0396144 -0.17119649 100
5.7713194 -1.0650128 -0.085286058 100
13.754978 -1.1389122 -0.14320017 100
14.961242 -1.1260433 -0.15651445 100
19.04311 -0.94047046 -0.16287076 100
19.591537 -1.1618391 -0.16929053 100
21.131655 -1.0246058 -0.17585155 100
23.901739 -1.0924436 -0.047709566 100
-4.0681987 -0.72872788 -0.12409957 100
-2.8968642 -0.72680205 -0.15860456 100
-2.4145746 -0.77472705 -0.16623914 100
-2.2244263 -0.84618843 -0.1625026 100
-1.7080843 -0.83306086 -0.16381669 100
-1.3167057 -0.76341498 -0.16552083 100
-1.0754948 -0.71673805 -0.16579163 100
-0.77641052 -0.7556349 -0.17911831 100
-0.45389491 -0.7437706 -0.17799631 100
-0.1815258 -0.74110901 -0.17887989 100
0.25162435 -0.81478441 -0.18835075 100
0.40775999 -0.83998948 -0.17348784 100
0.76531231 -0.69408339 -0.16733827 100
1.0810914 -0.65446436 -0.16750689 100
1.3949131 -0.73490494 -0.1686489 100
1.6710522 -0.74602842 -0.16946225 100
1.9753608 -0.74909109 -0.16988106 100
2.2448838 -0.70013535 -0.16999446 100
2.5494947 -0.79932523 -0.17028438 100
2.8165894 -0.72582841 -0.17085208 100
3.1816282 -0.77316153 -0.16991265 100
3.4331055 -0.78320885 -0.17246605 100
3.7462211 -0.69283402 -0.16983986 100
4.0744467 -0.72159195 -0.16248153 100
4.3795552 -0.77878183 -0.16350777 100
4.7750573 -0.77710247 -0.17491068 100
4.9912276 -0.72032529 -0.16953675 100
5.2286406 -0.75278908 -0.17025506 100
5.6083293 -0.74169284 -0.082945324 100
5.7055187 -0.85700518 -0.13147402 100
16.372141 -0.7290619 -0.18646596 100
17.786127 -0.64325595 -0.17382202 100
19.495193 -0.62413561 -0.15923199 100
19.961704 -0.68867528 -0.16038959 100
20.525246 -0.71291465 -0.16493288 100
20.898199 -0.69400531 -0.15830621 100
-4.0701203 -0.45687628 -0.099069215 100
-3.710638 -0.34842548 -0.23208866 100
-3.0173712 -0.47509554 -0.16956875 100
-2.5997717 -0.43490741 -0.19935481 100
-2.3126466 -0.46394154 -0.16663173 100
-1.984056 -0.43365741 -0.21509482 100
-1.6214081 -0.31831646 -0.16787212 100
-1.3674881 -0.44058925 -0.18568888 100
-0.60786593 -0.35062584 -0.16789466 100
-0.36957812 -0.4690384 -0.16707881 100
-0.10592065 -0.43745351 -0.17073646 100
0.20779832 -0.43300268 -0.16931558 100
0.49248016 -0.46038941 -0.16871606 100
0.75061399 -0.48367199 -0.16693451 100
0.99705285 -0.40566832 -0.16786093 100
1.3102875 -0.39782715 -0.16649799 100
1.7054569 -0.50686193 -0.16948657 100
1.9303234 -0.43735456 -0.1692636 100
2.1918638 -0.42485395 -0.16991477 100
2.6408865 -0.52874517 -0.17139553 100
2.8889818 -0.45633137 -0.17282581 100
3.1845205 -0.43301097 -0.17106897 100
3.4628499 -0.50445497 -0.17167836 100
3.7667165 -0.4518902 -0.16546096 100
4.046865 -0.45862484 -0.16842483 100
4.2634072 -0.48504695 -0.17401095 100
4.6563802 -0.44486824 -0.17224698 100
4.8994846 -0.49415612 -0.17132108 100
5.3250346 -0.45101348 -0.17436814 100
5.5013566 -0.44876927 -0.06539423 100
13.59691 -0.33112115 -0.18745425 100
14.363235 -0.36732978 -0.089261107 100
14.944502 -0.34067675 -0.16639462 100
18.607025 -0.45707452 -0.16157447 100
19.044884 -0.53653073 -0.16044557 100
19.401417 -0.56675678 -0.16324635 100
23.911888 -0.57931262 -0.1268945 100
-4.0640316 -0.10183951 -0.095362961 100
-3.5541611 -0.098931789 -0.16914819 100
-3.0070305 -0.14509308 -0.16940191 100
-2.4890091 -0.11842066 -0.16248585 100
-1.9088591 -0.12777339 -0.17596151 100
-1.5134584 -0.18937933 -0.16657341 100
-1.3191854 -0.11397927 -0.17703779 100
-1.099649 -0.086879745 -0.16815659 100
-0.82203728 -0.22394404 -0.17291471 100
-0.43153772 -0.0983188 -0.16677733 100
-0.12963457 -0.1378637 -0.16907917 100
0.20070595 -0.15301402 -0.16924739 100
0.54706776 -0.21360837 -0.16916348 100
0.74651223 -0.13162598 -0.1704601 100
1.0761046 -0.14130034 -0.16986428 100
1.2645229 -0.12889954 -0.16730654 100
2.0052416 -0.17167442 -0.17069866 100
2.3944209 -0.13909703 -0.15801249 100
2.4807813 -0.11371098 -0.172592 100
2.9047449 -0.16155608 -0.1715758 100
3.146939 -0.13932033 -0.17049579 100
3.4640968 -0.16699484 -0.16795343 100
3.7450671 -0.1572205 -0.16683401 100
4.0540204 -0.16680139 -0.17314695 100
4.3694148 -0.13754284 -0.17172641 100
4.6169734 -0.13364519 -0.17449923 100
4.8193011 -0.28301266 -0.17399958 100
5.2331476 -0.16553548 -0.16936067 100
5.4782362 -0.14241603 -0.083381556 100
13.566959 -0.0089309877 -0.0025787062 100
14.299189 -0.12116778 -0.1118327 100
18.225779 -0.1741222 -0.16416423 100
18.631956 -0.14659289 -0.16249341 100
19.068785 -0.015708735 -0.16238138 100
19.508503 -0.173544 -0.17418887 100
20.327782 -0.049857583 -0.021338718 100
23.140116 -0.097342253 -0.17863458 100
23.910465 -0.28139532 -0.11761577 100
-4.0750275 0.12331863 -0.09181942 100
-3.4435117 0.11361156 -0.1730372 100
-3.2172778 0.041733395 -0.23073687 100
-2.9790783 0.070590228 -0.1696395 100
-2.5062413 0.0067068329 -0.19292451 100
-1.91553 0.12222427 -0.11078061 100
-1.6682171 0.1572146 -0.10614058 100
-1.3160315 0.15357815 -0.10625684 100
-1.141608 0.25351268 -0.079087086 100
-0.72254199 0.13890074 -0.16592687 100
-0.44414505 0.1290129 -0.16637652 100
-0.18655294 0.15222725 -0.16552773 100
0.14302813 0.1626468 -0.17037007 100
0.43745905 0.15212275 -0.17170629 100
0.78484595 0.1427557 -0.16853684 100
1.0753521 0.16192091 -0.16691045 100
1.3220197 0.16336891 -0.16776177 100
1.6264206 0.1499155 -0.16822621 100
2.0026369 0.1797964 -0.10357387 100
2.2628112 0.099083617 -0.084421724 100
2.5961506 0.064328171 -0.068221673 100
2.9149101 0.15987168 -0.056262027 100
3.0855243 0.084570318 -0.1180224 100
3.5197332 0.05862911 -0.17324881 100
3.7412748 0.13738234 -0.17300241 100
4.0254321 0.21128109 -0.17137361 100
4.3294334 0.12228348 -0.17449525 100
4.5100613 0.25092036 -0.17444497 100
5.0507913 0.19381188 -0.15683359 100
5.2313733 0.17741345 -0.17507401 100
5.4645219 0.14383964 -0.089156069 100
5.9467673 0.16839142 -0.093930028 100
14.898058 0.20974965 -0.17458868 100
16.364119 0.17220059 -0.1826213 100
16.700499 0.27974704 -0.073252819 100
18.716 0.17253532 -0.16527104 100
19.345915 0.19748516 -0.17220396 100
19.720737 0.20377736 -0.16840546 100
20.546682 0.25232619 -0.1674743 100
-4.0735102 0.43486995 -0.069155917 100
-3.1542354 0.47696123 -0.16117941 100
-2.2120166 0.40604293 -0.019690353 100
-1.5053905 0.52817494 -0.038550764 100
-1.2479665 0.42104816 -0.01285319 100
-1.0294943 0.45255363 -0.065821938 100
-0.7586785 0.44115657 -0.15587631 100
-0.44607735 0.47820565 -0.17131665 100
-0.13030788 0.3955749 -0.17159961 100
0.1288067 0.45337522 -0.1678341 100
0.44609618 0.34562659 -0.16552551 100
0.70638305 0.49941954 -0.16267626 100
1.0196519 0.54696834 -0.16451749 100
1.3744304 0.45908976 -0.16829619 100
1.6435034 0.43175957 -0.16306852 100
1.9520739 0.46949717 -0.094567485 100
2.1681778 0.37740988 -0.030892784 100
2.4415977 0.36885443 -0.0057409378 100
2.889816 0.47796163 -0.030431885 100
3.1332436 0.48100519 -0.10557831 100
3.8147397 0.50223643 -0.17258361 100
4.0498047 0.40692985 -0.17388505 100
4.2364473 0.31371087 -0.17374952 100
4.7061176 0.50557566 -0.17510521 100
5.0010986 0.44577923 -0.1729584 100
5.1766744 0.42445517 -0.17801404 100
5.4616818 0.45780095 -0.072185308 100
14.363754 0.49813762 -0.085707106 100
14.474477 0.40183544 -0.17654052 100
16.543348 0.56121475 -0.0078488598 100
18.446499 0.5930084 -0.16905551 100
19.138863 0.45429075 -0.16549042 100
19.247223 0.39413559 -0.16419201 100
19.617977 0.59698659 -0.16316751 100
20.003157 0.41575754 -0.11402044 100
20.245514 0.48435932 -0.16295744 100
20.589407 0.43432432 -0.17141612 100
23.326532 0.43796837 -0.15648921 100
23.914707 0.30329731 -0.02802591 100
-4.0842385 0.73275054 -0.070143573 100
-0.94565994 0.68758821 -0.067411803 100
-0.81852174 0.74724334 -0.082468353 100
-0.44100088 0.72412229 -0.16817071 100
-0.11990013 0.73477173 -0.16627337 100
0.082853191 0.77957582 -0.16706878 100
0.41753674 0.78395241 -0.16493297 100
0.73675114 0.74183321 -0.16768365 100
1.0748878 0.76415026 -0.16779672 100
1.3691713 0.74651241 -0.16724935 100
1.6561704 0.73468173 -0.13687085 100
1.9363834 0.75609463 -0.04724675 100
3.1741095 0.72440958 -0.077087909 100
3.4235644 0.81948817 -0.12195881 100
3.9650729 0.75305825 -0.17311999 100
4.3561497 0.64524269 -0.17390442 100
4.6307712 0.86821586 -0.17495124 100
4.9474759 0.7291345 -0.17300491 100
5.231276 0.73683357 -0.17795093 100
5.4600801 0.72453499 -0.083075225 100
14.0567 0.72396654 -0.16135134 100
14.362425 0.88758868 -0.085729018 100
14.400378 0.73564517 -0.1700338 100
14.848471 0.77346092 -0.17276376 100
15.983529 0.77454138 -0.035115652 100
16.467127 0.71998227 -0.042732041 100
17.612787 0.85454112 -0.14996198 100
18.828159 0.60223705 -0.16821174 100
19.338051 0.75568914 -0.16646874 100
19.638056 0.62799865 -0.17435873 100
19.945732 0.82571542 -0.16421045 100
20.199467 0.79861295 -0.099311978 100
20.624844 0.73196578 -0.085083842 100
23.254044 0.70108527 -0.10180694 100
23.913395 0.63729692 -0.024849499 100
-4.0623083 1.1116363 -0.096641697 100
-3.7757168 0.98027468 -0.1695489 100
-0.83001423 1.048458 -0.072185762 100
-0.4948118 1.0771449 -0.16948541 100
-0.13530144 1.0368415 -0.16758046 100
0.14442705 1.0341556 -0.16840483 100
0.44359604 1.0628915 -0.17007916 100
0.77592975 1.0268229 -0.17050551 100
0.96171749 1.0315013 -0.17087516 100
1.3886439 1.0659362 -0.1521741 100
1.5937406 1.0604987 -0.074903138 100
1.851415 1.0031732 -0.027857557 100
3.2726326 1.0031887 -0.058473531 100
3.4615722 1.0485669 -0.074619532 100
3.6543 1.0142304 -0.082419388 100
4.3440804 1.1709095 -0.16977151 100
4.6780019 1.0302831 -0.17102252 100
4.9461403 1.0685843 -0.17719494 100
5.2453384 1.0259851 -0.13959259 100
5.4643149 1.0251049 -0.084083147 100
13.724669 0.97034317 -0.064824134 100
14.333257 1.0315191 -0.076044381 100
15.068976 1.016184 -0.17694101 100
15.39837 1.056861 -0.17053333 100
15.777824 1.0830096 -0.084163092 100
16.012604 1.1066533 -0.12783089 100
16.333969 1.1178274 -0.14953676 100
16.626364 0.9961409 -0.041515566 100
17.255264 0.97039914 -0.031554542 100
17.690599 1.1302687 -0.19827287 100
18.178442 1.1067537 -0.092022948 100
18.95636 1.0731652 -0.16685405 100
19.316166 1.0124619 -0.1643814 100
19.687157 0.97159898 -0.16293868 100
19.864805 1.0960385 -0.16605867 100
20.230211 1.075049 -0.13928136 100
20.665829 1.0723521 -0.091906868 100
21.401543 1.147597 -0.082706086 100
-4.0718656 1.3645475 -0.10805175 100
-0.95404971 1.4600052 -0.05714228 100
-0.80152315 1.3478619 -0.088742048 100
-0.40954232 1.3075994 -0.16868237 100
-0.046566144 1.304673 -0.16948725 100
0.1990514 1.3578118 -0.17060588 100
0.4519248 1.3468186 -0.17050068 100
0.76850653 1.3785156 -0.17104264 100
1.0257752 1.3757613 -0.17031978 100
1.3082572 1.4040109 -0.17199732 100
1.6215121 1.3192081 -0.093486689 100
2.9743748 1.4785784 -0.0039282427 100
3.4060688 1.2883757 -0.077379905 100
4.0082955 1.3458265 -0.16636547 100
4.3923035 1.3700519 -0.17153765 100
4.6150713 1.2965703 -0.17651157 100
4.9825144 1.3551588 -0.17813206 100
5.2549815 1.356389 -0.17098907 100
5.4588213 1.3282585 -0.086212754 100
6.2949347 1.3877273 -0.079415038 100
13.836301 1.3406427 -0.15169531 100
14.364096 1.2556792 -0.042798188 100
14.684997 1.2935212 -0.18493697 100
15.733158 1.3211112 -0.17095846 100
16.067188 1.2495735 -0.043070693 100
16.657669 1.3226187 -0.085948028 100
17.330227 1.3878404 -0.025023729 100
17.42548 1.3534434 -0.020079315 100
17.847666 1.3007361 -0.10408806 100
18.448326 1.3899317 -0.17124297 100
19.265274 1.4965706 -0.17057064 100
19.576626 1.2690753 -0.16859554 100
20.237638 1.3460745 -0.10159647 100
20.599743 1.3720338 -0.11259116 100
20.775131 1.4463044 -0.086199693 100
21.041985 1.3983134 -0.046513893 100
23.263504 1.4699464 -0.073873863 100
23.436111 1.3701098 -0.078406647 100
23.917427 1.3114549 -0.068447918 100
-4.0744224 1.7665859 -0.172318 100
-3.7215295 1.6449735 -0.22497162 100
-2.4875054 1.7881638 -0.16712601 100
-1.5048516 1.7343799 -0.0036350959 100
-1.2552276 1.5940102 -0.014668708 100
-1.0002278 1.6576691 -0.11945826 100
-0.78241366 1.612677 -0.16746949 100
-0.49980727 1.675095 -0.17087328 100
-0.059819117 1.6578745 -0.17700897 100
0.14281991 1.671893 -0.17164703 100
0.4565171 1.6805249 -0.17151199 100
0.73278981 1.6230937 -0.17179249 100
1.0379794 1.6033882 -0.17038558 100
1.330646 1.5944299 -0.16984302 100
1.6835632 1.6211388 -0.16757762 100
2.0423377 1.7833468 -0.079452664 100
2.241962 1.6971393 -0.066241667 100
2.5574443 1.6652369 -0.053996414 100
2.8813899 1.6591198 -0.035137866 100
3.1068587 1.7125394 -0.036077134 100
3.453362 1.706344 -0.1855731 100
3.7285438 1.5802317 -0.18117481 100
4.0107126 1.7209772 -0.17988548 100
4.3249154 1.5789256 -0.16896951 100
4.7055755 1.6522739 -0.17567113 100
4.8829265 1.6789484 -0.15768696 100
5.1808228 1.631745 -0.17653884 100
5.4625902 1.6517477 -0.067607611 100
13.72472 1.7724293 -0.072028622 100
13.88702 1.7929169 -0.090426549 100
14.329509 1.6769022 -0.12487213 100
14.532154 1.6705332 -0.19483432 100
14.749273 1.7600267 -0.18129915 100
15.019571 1.6646806 -0.18009804 100
15.448402 1.5996045 -0.18145445 100
15.869258 1.7526644 -0.17528094 100
16.049282 1.5956557 -0.14880684 100
16.652599 1.5764456 -0.13640568 100
16.9156 1.7814161 -0.07679683 100
17.67671 1.6341132 -0.045096654 100
17.821209 1.5931101 -0.083414949 100
18.037189 1.689544 -0.16834545 100
18.982355 1.7217381 -0.17211045 100
20.375925 1.6803731 -0.16830376 100
20.876293 1.6689249 -0.091990218 100
21.061325 1.7065383 -0.03669852 100
21.314606 1.6069071 -0.23185387 100
22.095482 1.6556972 -0.10977984 100
23.914413 1.6325088 -0.039552163 100
-4.055963 1.9085777 -0.12365327 100
-3.0763113 1.8979955 -0.17821275 100
-2.5055261 2.0728331 -0.1675034 100
-2.3020086 2.0137844 -0.1769868 100
-1.7033988 1.8974674 -0.13355291 100
-1.2817148 1.8906697 -0.1266633 100
-1.1166288 1.9353837 -0.16720602 100
-0.71721679 1.9541934 -0.1707565 100
-0.55065322 2.0073681 -0.17179298 100
-0.09104497 1.9619428 -0.17013486 100
0.17219247 1.9501289 -0.17062977 100
0.40647906 1.8902049 -0.1717086 100
0.67992061 1.8630823 -0.17340596 100
1.0797973 2.0101838 -0.16746193 100
1.361598 1.9801435 -0.17192544 100
1.6164386 1.908993 -0.17361119 100
1.9572356 1.8773934 -0.11300715 100
2.1804771 1.8720306 -0.12813549 100
2.5084209 1.8404092 -0.11826888 100
2.8843269 1.9666103 -0.1491712 100
3.0543048 1.8579808 -0.077734172 100
3.3620377 1.9906973 -0.18148167 100
3.7025239 1.9709644 -0.18388642 100
4.1684904 1.8364649 -0.18080646 100
4.3766227 1.9592323 -0.18209784 100
4.6363525 1.9597623 -0.1827237 100
4.9541645 1.9338055 -0.18082097 100
5.2376699 1.9708537 -0.18209481 100
5.4597564 1.9353389 -0.088457435 100
13.891555 1.8439093 -0.01590858 100
14.286011 1.9218264 -0.14155078 100
14.493336 1.876207 -0.18253963 100
14.883467 2.0353351 -0.18783556 100
15.088521 1.8804101 -0.17349415 100
15.568988 1.9218949 -0.1763707 100
15.835397 2.0371346 -0.18066385 100
15.949196 1.8615934 -0.1790562 100
16.376108 1.8831345 -0.096772395 100
16.721989 1.9650592 -0.13297066 100
17.030853 1.9131608 -0.081880637 100
17.255592 1.9900782 -0.13491741 100
17.493013 1.951089 -0.09681958 100
17.788639 1.9450999 -0.10045927 100
18.72657 1.9443235 -0.17270593 100
20.304173 2.088603 -0.17475589 100
20.618067 1.9325346 -0.16971214 100
20.993538 1.9218791 -0.18227801 100
21.152838 1.8683062 -0.097723879 100
21.349081 1.9168643 -0.10126948 100
21.698496 1.9115503 -0.13336863 100
22.109571 2.0278986 -0.19315439 100
23.912542 2.0091801 -0.00092060654 100
-4.0106001 2.1758094 -0.16924655 100
-2.8184919 2.1933427 -0.17079853 100
-2.5010729 2.356734 -0.16817857 100
-2.1258616 2.1100247 -0.16643827 100
-1.9466779 2.3218076 -0.17722437 100
-1.5475116 2.3645332 -0.17556974 100
-1.3953586 2.2464597 -0.16793934 100
-0.68711877 2.2056971 -0.1660578 100
-0.40963879 2.24809 -0.17088842 100
-0.20216185 2.3160734 -0.17833133 100
0.20356911 2.1858816 -0.17124613 100
0.45951846 2.2095068 -0.17028727 100
0.78076136 2.2600212 -0.17260441 100
1.0953019 2.3156755 -0.17192446 100
1.2968004 2.2560291 -0.17053701 100
1.6177359 2.2038982 -0.17393751 100
1.8990189 2.3015094 -0.17376715 100
2.2386141 2.3068123 -0.17547588 100
2.5280766 2.2831099 -0.17486471 100
2.910615 2.2469621 -0.17470314 100
3.0247777 2.2566092 -0.18091825 100
3.4681537 2.229821 -0.17911871 100
3.7023363 2.2836545 -0.18314989 100
4.06321 2.2118621 -0.18627992 100
4.3698025 2.2613552 -0.18366763 100
4.6540556 2.2549496 -0.18243667 100
4.9550438 2.254946 -0.18399897 100
5.217989 2.2379878 -0.18223126 100
5.4569287 2.231391 -0.069899186 100
13.776551 2.3673067 -0.088864826 100
13.981339 2.1761398 -0.14640632 100
14.347433 2.2482097 -0.090711936 100
14.900806 2.3452392 -0.17446463 100
15.14126 2.2068348 -0.17907205 100
16.180273 2.140913 -0.19134474 100
16.546694 2.3641171 -0.18078864 100
17.22094 2.2488401 -0.19134051 100
17.675911 2.3537946 -0.18189709 100
18.250042 2.3758383 -0.17479557 100
18.493073 2.1646318 -0.17398728 100
18.958731 2.2522759 -0.17066544 100
19.244371 2.3110211 -0.16966717 100
19.529135 2.387918 -0.1685057 100
20.463594 2.2495255 -0.17584196 100
20.837103 2.1779344 -0.17072766 100
21.235483 2.1537738 -0.16907932 100
23.119858 2.2278223 -0.18393067 100
-4.0463252 2.5504992 -0.16237497 100
-3.722029 2.6092155 -0.16688141 100
-3.5687704 2.541508 -0.16231827 100
-2.7443125 2.5537329 -0.16405079 100
-2.5856123 2.5575011 -0.17125665 100
-1.6642566 2.5607588 -0.17107144 100
-1.3577864 2.4379516 -0.15879694 100
-0.93767923 2.6667447 -0.17085761 100
-0.74627203 2.5512648 -0.16965768 100
-0.4285768 2.5741551 -0.17157796 100
-0.13146308 2.5525577 -0.17536621 100
0.18536094 2.5662086 -0.17564555 100
0.45046228 2.5752199 -0.17353204 100
0.7440446 2.4940612 -0.1746116 100
1.077121 2.57004 -0.17248036 100
1.3661345 2.5980992 -0.17052776 100
1.6102301 2.4597204 -0.16802102 100
1.9999161 2.5938392 -0.1731922 100
2.2740574 2.5741413 -0.17645971 100
2.6243792 2.5551805 -0.17573543 100
2.9443743 2.4835811 -0.17940238 100
3.1537943 2.5567384 -0.17957477 100
3.4679213 2.5605731 -0.17800492 100
3.7308836 2.5943184 -0.18236578 100
4.0154824 2.5366025 -0.17940092 100
4.2949347 2.4996195 -0.17691556 100
4.6690483 2.547852 -0.18197808 100
4.9675851 2.5766728 -0.18527837 100
5.2977209 2.6668408 -0.18738618 100
5.5110102 2.5476675 -0.072694369 100
14.297389 2.5731602 -0.10821129 100
14.582809 2.5502257 -0.17629677 100
14.730951 2.5835986 -0.18804869 100
15.044958 2.5281632 -0.17634994 100
15.450788 2.458698 -0.20198011 100
15.760183 2.5027382 -0.18162689 100
16.047398 2.6374843 -0.17984813 100
16.909981 2.5197105 -0.18011193 100
17.956381 2.694814 -0.18094879 100
18.088371 2.5979502 -0.17587593 100
18.449871 2.6004651 -0.17639492 100
19.811255 2.4814856 -0.16888316 100
21.155708 2.5179727 -0.17715015 100
21.382175 2.4178147 -0.17636546 100
22.32509 2.480468 -0.17625536 100
22.508232 2.677788 -0.19405118 100
23.91469 2.538625 -0.090636879 100
-4.0703263 2.8451064 -0.12170069 100
-3.2709994 2.9352751 -0.16733849 100
-2.8584893 2.9585643 -0.16543649 100
-2.5398471 2.9187577 -0.16894644 100
-2.1117702 2.93277 -0.16655983 100
-1.7027785 2.8774929 -0.17007831 100
-1.3795285 2.8357706 -0.17255503 100
-1.0737923 2.9269686 -0.17433943 100
-0.82374167 2.7594485 -0.18840626 100
-0.42892793 2.8201926 -0.17352811 100
-0.20491059 2.8980944 -0.16681749 100
0.18097061 2.8714764 -0.17403701 100
0.51427662 2.8477695 -0.17523718 100
0.74876451 2.8019664 -0.17400146 100
0.99914795 2.8906801 -0.17163904 100
1.3497003 2.8753927 -0.175861 100
1.5949318 2.8198962 -0.17499906 100
1.9917064 2.7939296 -0.17387982 100
2.5049541 2.8658142 -0.18035035 100
2.8536775 2.9251795 -0.17597722 100
3.1721983 2.849915 -0.17598054 100
3.4521687 2.894721 -0.18057066 100
3.7682602 2.8757007 -0.17562383 100
3.9783068 2.9214904 -0.17675173 100
4.3227749 2.9050317 -0.17702305 100
4.5648165 2.7213814 -0.18460232 100
4.9547529 2.8656776 -0.1798393 100
5.2668271 2.8647172 -0.18684028 100
5.6139364 2.7936695 -0.12244253 100
5.7763996 2.8603895 -0.081558496 100
13.74942 2.7722611 -0.10143165 100
13.968846 2.8901892 -0.092507206 100
14.223977 2.8874257 -0.14743407 100
14.529549 2.8100216 -0.1873247 100
14.830195 2.8689823 -0.1859042 100
15.147649 2.8630571 -0.19051497 100
15.504696 2.8957701 -0.18270326 100
15.668342 2.8315053 -0.18185036 100
16.048113 2.9514794 -0.19203956 100
16.401056 2.8307447 -0.18624093 100
16.677582 2.9384797 -0.18800849 100
16.936068 2.8920665 -0.19828363 100
17.824036 2.8674049 -0.17963758 100
18.119713 2.812968 -0.18178852 100
18.70734 2.7939706 -0.17358136 100
19.029676 2.7331212 -0.16704044 100
19.310736 2.7428977 -0.16575664 100
19.602428 2.7616115 -0.16323626 100
19.988577 2.7614737 -0.17209923 100
22.179308 2.8823874 -0.18338779 100
-4.0758667 3.0267127 -0.011285387 100
-2.8636858 3.2336211 -0.16912159 100
-2.2694559 3.1971045 -0.17214394 100
-1.8186499 3.1186616 -0.17025733 100
-1.2799631 3.1445773 -0.17277381 100
-1.1128467 3.2219665 -0.13418567 100
-0.73268038 3.1895745 -0.17466386 100
-0.46497819 3.105161 -0.17311208 100
-0.20610404 3.1732247 -0.17330183 100
0.096591279 3.1360278 -0.17244856 100
0.47270331 3.1827106 -0.17419939 100
0.71692067 3.1823347 -0.17456734 100
0.99784642 3.1841896 -0.17428321 100
1.4243679 3.2040768 -0.14146274 100
1.6441474 3.1488912 -0.17628787 100
1.8860077 3.2070179 -0.17835806 100
2.2287073 3.1375041 -0.1739108 100
2.6180336 3.1320617 -0.17852987 100
2.8490613 3.190479 -0.17888725 100
3.114367 3.1471963 -0.18061543 100
3.4955311 3.1392174 -0.18147708 100
3.8117259 3.0961745 -0.17132935 100
4.0898905 3.1695802 -0.18088327 100
4.2830939 3.1982934 -0.18259872 100
4.6895413 3.1115158 -0.18409412 100
4.9584322 3.1267831 -0.18704808 100
5.150938 3.1549697 -0.18975285 100
5.5455956 3.1614735 -0.17670476 100
5.8468027 3.1121082 -0.15918301 100
6.0637498 3.2328467 -0.10042749 100
13.642361 3.0600519 -0.062695473 100
13.958145 3.1701672 -0.10511731 100
14.342747 3.0252461 -0.17100143 100
14.481792 3.050715 -0.17749584 100
14.839015 3.2587109 -0.19464032 100
15.101056 3.1463687 -0.18673594 100
15.440372 3.0913608 -0.19310212 100
15.690639 3.0778189 -0.18653673 100
15.985356 3.1568165 -0.18841907 100
16.316248 3.1759369 -0.18113367 100
16.650686 3.093559 -0.18520518 100
17.040445 3.2404256 -0.19465344 100
17.654081 3.2660472 -0.18169709 100
17.754301 3.0235252 -0.17680271 100
18.206347 3.0503533 -0.18088396 100
18.501022 3.1866565 -0.17964159 100
18.826679 3.1698143 -0.17703885 100
19.048779 3.2300253 -0.1730582 100
19.291906 3.2562399 -0.1719539 100
19.540638 3.2927122 -0.17201799 100
19.844828 3.2909448 -0.18523455 100
20.347872 3.0299826 -0.1777212 100
21.097853 3.2343254 -0.17553404 100
-4.0170336 3.4012866 -0.1576647 100
-2.5114419 3.3969021 -0.1679281 100
-2.2812486 3.4415796 -0.16968469 100
-1.979473 3.3353102 -0.17222954 100
-1.6260861 3.3360023 -0.19404575 100
-1.2778475 3.3392048 -0.086304486 100
-1.0574743 3.400754 -0.08485648 100
-0.74152899 3.4332674 -0.15060055 100
-0.50416499 3.452158 -0.14948691 100
-0.18366581 3.4603097 -0.15007265 100
0.1297695 3.4784746 -0.1466547 100
0.45268103 3.470211 -0.14878917 100
0.7377758 3.4543774 -0.15181403 100
1.0684031 3.4526649 -0.15221907 100
1.3646932 3.3901033 -0.083500832 100
1.7089405 3.4890232 -0.177183 100
2.0307064 3.3454969 -0.17962605 100
2.2711506 3.5004461 -0.17952777 100
2.5156357 3.4517593 -0.17848313 100
2.872319 3.348069 -0.18337439 100
3.117466 3.4829369 -0.1749981 100
3.771662 3.4709156 -0.18408033 100
4.0739875 3.5028679 -0.18503721 100
4.3297234 3.5844634 -0.18170077 100
4.6490521 3.4291644 -0.18291464 100
4.9739389 3.4333403 -0.18764912 100
5.2837095 3.4067585 -0.18598276 100
5.5029631 3.4202099 -0.18514565 100
5.8619881 3.5346439 -0.18320601 100
6.1438093 3.4257538 -0.11563056 100
13.348423 3.5193927 -0.085174024 100
13.703263 3.3739777 -0.075872906 100
13.867397 3.4815321 -0.13480875 100
14.286122 3.3570714 -0.18232563 100
14.565257 3.4642587 -0.19308361 100
14.850578 3.4423609 -0.19079749 100
15.127988 3.426471 -0.18956223 100
15.384411 3.4551377 -0.19063976 100
15.690456 3.5101304 -0.1840142 100
16.08054 3.3980141 -0.18397276 100
16.347586 3.3709204 -0.18801641 100
16.611822 3.4007332 -0.19168901 100
16.940046 3.4613707 -0.19457252 100
17.482111 3.4410746 -0.17794526 100
18.424969 3.4171259 -0.18158761 100
18.605125 3.407815 -0.18575177 100
18.997953 3.4118366 -0.18213704 100
20.916311 3.3927629 -0.19221374 100
21.280634 3.4336638 -0.18209238 100
23.909397 3.4546592 -0.10040404 100
-3.629874 3.656388 -0.085033804 100
-3.5423017 3.6448903 -0.0085003898 100
-2.8212655 3.6484036 -0.06634672 100
-2.6810393 3.6937671 -0.053271066 100
-1.9364606 3.8178105 -0.17739305 100
-1.0417248 3.691288 -0.08189854 100
-0.78665632 3.7043276 -0.1090662 100
-0.44318432 3.7457161 -0.0993843 100
-0.13578273 3.7620082 -0.099090509 100
0.16784205 3.7187777 -0.10438645 100
0.4598867 3.7219203 -0.10502546 100
0.74861926 3.7352962 -0.10500186 100
1.0180802 3.7460036 -0.10263904 100
1.3367609 3.7335699 -0.086228065 100
2.0013654 3.7510231 -0.17886175 100
2.2098129 3.6296163 -0.17615008 100
2.4387481 3.7251387 -0.18139181 100
2.8970938 3.7330282 -0.17820509 100
3.1713665 3.7291334 -0.17880282 100
3.4423072 3.7443357 -0.18412519 100
3.7030485 3.7912388 -0.18813415 100
3.9953656 3.7013001 -0.18479648 100
4.4658337 3.6211402 -0.18232031 100
4.7168393 3.7551787 -0.18403447 100
4.9701147 3.7516077 -0.18435773 100
5.2312365 3.6703515 -0.18461445 100
5.5765038 3.7152584 -0.18287283 100
5.8555255 3.847785 -0.19063011 100
6.1247516 3.7395151 -0.18925123 100
6.4370646 3.7940319 -0.099719524 100
8.2530022 3.8003623 -0.016061746 100
12.547629 3.8395858 -0.046088379 100
12.828862 3.8254929 -0.069688201 100
13.123065 3.7600079 -0.082306251 100
13.322555 3.7333157 -0.096529379 100
13.665112 3.7605662 -0.12380006 100
13.92233 3.7557478 -0.19718149 100
14.220416 3.7446196 -0.18152496 100
14.528672 3.7222879 -0.18649276 100
14.887913 3.7800941 -0.19433111 100
15.061728 3.6770797 -0.18930402 100
15.409686 3.7747014 -0.18785688 100
15.731553 3.6447668 -0.18776014 100
16.072481 3.7884777 -0.18633604 100
16.338995 3.7368333 -0.18881609 100
16.637472 3.7634521 -0.19328034 100
16.918825 3.7302043 -0.19208993 100
17.276754 3.7192643 -0.18499653 100
17.629524 3.7096992 -0.18827848 100
18.69445 3.729862 -0.18564329 100
20.425995 3.8952668 -0.1825739 100
23.915245 3.8525729 -0.024954461 100
-2.7839522 4.0188131 -0.14462286 100
-2.571017 4.0709152 -0.059613597 100
-1.8443284 4.1118731 -0.15121827 100
-0.96597904 4.0532737 -0.041845243 100
-0.68493521 4.0510674 -0.048365861 100
-0.40748665 4.0370784 -0.051797323 100
-0.08209113 4.0676417 -0.033061374 100
0.15350796 4.0927324 -0.042425282 100
0.45461559 4.0836306 -0.042763099 100
0.75067878 4.0817819 -0.041898008 100
1.0288998 4.0754986 -0.043704845 100
1.3043978 3.9953783 -0.043302026 100
1.6249816 4.0167894 -0.081353061 100
1.9201999 4.0157657 -0.10136746 100
2.2695773 4.0060701 -0.095583066 100
2.5559919 3.9858224 -0.1181013 100
2.830579 4.0065112 -0.08360517 100
3.1474299 3.9908769 -0.11213984 100
3.4282556 4.0005789 -0.085355528 100
3.7609801 4.0009098 -0.098361418 100
4.043469 4.0083671 -0.09154471 100
4.3697939 4.001255 -0.090553321 100
4.6607037 4.0063963 -0.08581686 100
4.9315195 4.0074263 -0.072416842 100
5.2029428 4.0181861 -0.12816241 100
5.5766468 3.9991264 -0.17232111 100
5.9644156 3.9058821 -0.20852266 100
6.4560452 3.992774 -0.14155218 100
6.6613522 4.0841484 -0.05943786 100
12.548615 4.0630736 -0.055814363 100
12.744336 4.0851083 -0.059239522 100
13.04376 4.0123205 -0.13024655 100
13.326877 4.0648875 -0.1524189 100
13.549025 4.0071359 -0.070744269 100
13.944339 4.1498947 -0.19101244 100
14.227529 4.0437822 -0.18831252 100
14.550957 4.0447116 -0.19641308 100
14.862312 4.0622149 -0.19415703 100
15.133026 4.0194674 -0.19306695 100
15.52305 4.0345941 -0.18799993 100
15.852823 4.1145864 -0.18952721 100
16.022398 4.0228028 -0.18746947 100
16.34586 4.0192246 -0.19545297 100
16.620724 4.0556097 -0.19457063 100
16.820978 4.086771 -0.1929732 100
17.171106 4.0530968 -0.17983295 100
17.564232 3.9375255 -0.1925275 100
17.882671 3.9981406 -0.18893398 100
18.257816 4.164773 -0.18661858 100
18.769285 4.1730399 -0.18265785 100
18.985683 4.1954989 -0.18375993 100
21.421434 4.1025186 -0.17674977 100
23.924166 3.9697707 -0.13719712 100
-2.494365 4.3062983 -0.10765524 100
-2.248579 4.2659092 -0.020886868 100
-1.0387688 4.2858095 -0.028054435 100
-0.69743443 4.2859411 -0.0071866149 100
-0.35812831 4.2508903 -0.018217612 100
-0.16979221 4.2997046 -0.010954038 100
0.17002654 4.3169813 -0.0060500982 100
0.45615798 4.3182764 -0.010393594 100
0.78766364 4.2505431 -0.017300518 100
1.0034307 4.2159834 -0.023415588 100
5.3898373 4.2143307 -0.12034768 100
5.4976864 4.3771753 -0.074996501 100
5.7241845 4.4910765 -0.0091175158 100
6.5584211 4.4853749 -0.17793663 100
6.8086481 4.3019209 -0.029046085 100
6.9341578 4.4352593 -0.073915094 100
13.027319 4.3561773 -0.14470598 100
13.45824 4.4453478 -0.11535595 100
13.612702 4.3239741 -0.16141215 100
13.968188 4.3348398 -0.18561009 100
14.240987 4.3281264 -0.19983512 100
14.475078 4.3726344 -0.19886053 100
14.844266 4.3321977 -0.19377518 100
15.097575 4.3479495 -0.19331665 100
15.466327 4.3725657 -0.18819417 100
15.771038 4.3677254 -0.19145069 100
16.022032 4.3628082 -0.19195476 100
16.34391 4.300261 -0.19526392 100
16.614239 4.3457699 -0.1982514 100
17.001747 4.2985916 -0.19258495 100
17.299961 4.4905558 -0.18565246 100
23.914522 4.2564235 -0.15798646 100
5.6308937 4.5037913 -0.076761886 100
5.8456602 4.6485991 -0.12176802 100
6.0824804 4.6576247 -0.18867755 100
6.4622588 4.7936263 -0.19941086 100
7.0249815 4.6118698 -0.095558822 100
13.102283 4.6945729 -0.11018458 100
13.403274 4.6479554 -0.093219854 100
13.734962 4.6674471 -0.19100025 100
13.930346 4.6221323 -0.19881617 100
14.213329 4.6690874 -0.19304508 100
14.509246 4.5774875 -0.18753168 100
15.133243 4.6110878 -0.19050738 100
15.395224 4.6236992 -0.18943337 100
15.77529 4.6728339 -0.19248252 100
16.058802 4.6485271 -0.19700935 100
16.337839 4.6322684 -0.19932869 100
16.592152 4.634757 -0.2009536 100
16.810873 4.5204477 -0.19767132 100
17.482185 4.7019157 -0.18970919 100
17.700298 4.5183263 -0.18792528 100
-2.0025709 5.036787 -0.02795759 100
5.9486618 4.8536429 -0.046945903 100
6.0999689 4.9357514 -0.13226369 100
6.8404274 4.8564448 -0.19858326 100
7.1893425 4.8338909 -0.014573308 100
7.2007518 4.8526096 -0.14994681 100
13.059395 4.9588132 -0.090895988 100
13.38909 4.9235749 -0.10151768 100
13.632378 4.9658017 -0.19258837 100
14.171107 5.0494833 -0.19122085 100
14.928548 4.9649296 -0.18896662 100
15.126518 4.9102926 -0.19248566 100
15.515666 4.9763508 -0.1929391 100
15.761647 4.9615374 -0.19419967 100
16.020687 4.9466648 -0.19661856 100
16.330784 4.894104 -0.19498023 100
16.674681 4.9814711 -0.18869568 100
21.748426 5.0577879 -0.18246862 100
23.922642 4.9217968 -0.10291351 100
-2.5700343 5.1287818 -0.090497233 100
-2.1124649 5.1074176 -0.16802724 100
-0.20563056 5.205174 -0.0087469015 100
6.2885294 5.1884127 -0.03549248 100
6.3401971 5.130651 -0.1493849 100
13.089589 5.2691703 -0.062859342 100
13.396559 5.2572756 -0.10482977 100
13.546682 5.3593764 -0.090996675 100
13.976772 5.2158389 -0.19130242 100
14.579535 5.337512 -0.19239382 100
14.839787 5.2165842 -0.19083831 100
15.110538 5.193172 -0.19289978 100
15.441256 5.2647967 -0.19381624 100
15.737466 5.2870679 -0.19649477 100
15.980316 5.2076902 -0.19873956 100
16.607113 5.1505647 -0.18817461 100
17.000767 5.2882357 -0.16038252 100
17.1539 5.3520947 -0.12842527 100
17.417965 5.2230392 -0.097811311 100
17.829468 5.2781529 -0.026707813 100
20.248022 5.1390324 -0.03720795 100
23.916096 5.2257118 -0.1751097 100
7.3220186 5.4442081 -0.20875193 100
13.136426 5.5085998 -0.076988421 100
13.377766 5.5600128 -0.099475004 100
13.67825 5.5481949 -0.10177454 100
14.255972 5.6494131 -0.18969622 100
14.512688 5.579154 -0.19162196 100
14.814934 5.5472093 -0.19089021 100
15.158825 5.5195379 -0.19352856 100
15.430068 5.5145378 -0.19372809 100
15.68174 5.581501 -0.19795388 100
16.678301 5.6099067 -0.19627291 100
16.978508 5.5678616 -0.14861684 100
17.218157 5.5413871 -0.10718694 100
17.471279 5.5002508 -0.070514202 100
17.803499 5.4299922 -0.025930962 100
23.023222 5.5841928 -0.087163843 100
6.7419991 5.8070836 -0.17593642 100
7.3835773 5.7494278 -0.10297968 100
13.337177 5.7652407 -0.080000363 100
13.560744 5.8909454 -0.087428242 100
13.89653 5.8613749 -0.10877592 100
14.295658 5.9319859 -0.19366592 100
14.548984 5.8890443 -0.19021444 100
14.865574 5.8212481 -0.19274628 100
15.120292 5.8384094 -0.19367307 100
15.491132 5.8737965 -0.19611791 100
15.690311 5.8871222 -0.19790307 100
16.636572 5.9064651 -0.18701255 100
16.941496 5.8562207 -0.1388786 100
17.256474 5.8492837 -0.080226652 100
17.667755 5.8220358 -0.013149447 100
7.1085587 6.2836761 -0.081702627 100
7.2958188 6.2051606 -0.19068511 100
7.5131359 6.0706892 -0.18432565 100
13.694265 6.1116724 -0.074288391 100
13.935541 6.2152967 -0.10461102 100
14.218242 6.1764932 -0.19097668 100
14.583959 6.1692519 -0.19203484 100
14.762753 6.0696673 -0.19297019 100
15.15181 6.1338873 -0.19184563 100
15.475389 6.1554599 -0.19994083 100
15.717523 6.1884284 -0.19824512 100
16.675419 6.0974011 -0.17109697 100
16.958395 6.1771598 -0.11981382 100
7.0840454 6.3024592 -0.049731951 100
7.2927961 6.3726196 -0.088126309 100
11.004102 6.5566263 -0.00015017892 100
11.964752 6.5869608 -0.0098592881 100
13.961257 6.4038877 -0.11479903 100
14.214376 6.4715128 -0.10468101 100
14.574466 6.444231 -0.18987991 100
14.973431 6.4752154 -0.19079851 100
15.19632 6.5181427 -0.13454363 100
15.414886 6.5075612 -0.15564038 100
15.763585 6.4959831 -0.14095517 100
16.028336 6.3778677 -0.075942464 100
16.239609 6.3590016 -0.061669316 100
7.4649963 6.6398573 -0.008645298 100
7.5822654 6.7904148 -0.021355677 100
10.787091 6.8753166 -0.0053821048 100
14.069601 6.6498232 -0.13631755 100
14.309407 6.6999002 -0.10567018 100
14.543274 6.7129946 -0.12193925 100
14.79283 6.6848049 -0.071433045 100
15.060669 6.6088595 -0.087698102 100
15.550503 6.6944466 -0.083157934 100
15.749222 6.6664863 -0.10207908 100
16.054655 6.6367455 -0.068960778 100
7.7199578 6.9405212 -0.12652375 100
10.981861 7.1460261 -0.0051796678 100
11.567327 7.0479231 -0.0034936722 100
12.100668 7.1640763 -0.0023246126 100
12.540765 7.1889105 -0.00097386207 100
13.156748 7.1302567 -0.0073986873 100
8.2614079 7.225801 -0.08268024 100
8.4991684 7.2145929 -0.11722509 100
8.7691927 7.23242 -0.073654816 100
9.4297276 7.2266464 -0.024534885 100
11.272104 7.3695502 -0.033689141 100
11.580322 7.3407178 -0.0038982229 100
11.956727 7.4759598 -0.0033149612 100
12.02562 7.3154578 -0.0027797546 100
12.42451 7.3903642 -0.0299036 100
11.351049 7.6911931 -0.045197774 100
11.597255 7.6798077 -0.0044572004 100
11.894713 7.6453476 -0.0036915208 100
12.13438 7.6822705 -0.021233201 100
12.44631 7.6422338 -0.022776838 100
12.717319 7.7142625 -0.037803486 100
12.915858 7.7984748 -0.010659889 100
14.006519 7.5161085 -0.0028955962 100
11.34727 7.9167542 -0.082959928 100
11.558585 7.9014468 -0.064616509 100
11.809844 7.8882494 -0.052690446 100
12.138675 8.0455475 -0.054598879 100
12.441313 8.0821714 -0.047041334 100
14.884868 7.9105711 -0.00068068609 100
15.580502 7.8194118 -0.0011343088 100
15.658736 8.0415287 -0.0025315713 100
17.079798 7.9671688 -0.0042005857 100
17.274651 7.9578047 -0.00025768348 100
12.536673 8.3413649 -0.10628186 100
12.754941 8.2012424 -0.067722552 100
13.06798 8.1947546 -0.061861869 100
13.317462 8.1925354 -0.077499509 100
13.618252 8.1896582 -0.072832741 100
14.992907 8.1004515 -0.0038666066 100
15.10816 8.3143797 -0.0070438171 100
15.731544 8.2777328 -0.0049568024 100
17.001553 8.2671614 -0.0062388391 100
11.946357 8.4837055 -0.053392697 100
12.095109 8.484026 -0.10970137 100
13.043723 8.4908829 -0.032299031 100
13.928322 8.4983854 -0.010738887 100
4.0840888 -6.6041093 0.2423365 100
5.8231988 -6.6268034 0.26068604 100
6.7688694 -6.6124644 0.20490818 100
7.2843361 -6.6304412 0.22116981 100
7.8984795 -6.6507492 0.23931485 100
8.6513882 -6.681437 0.26524898 100
-3.4257691 -6.3424411 0.27392983 100
-3.2908123 -6.3330622 0.22069602 100
-2.8438189 -6.3427372 0.25151986 100
-2.6251829 -6.4468045 0.1813281 100
-1.9581751 -6.5011907 0.26135582 100
-0.3739298 -6.4310894 0.19208466 100
-0.13241549 -6.4896693 0.1933348 100
0.15057944 -6.4548082 0.1770477 100
0.45660266 -6.4736552 0.16926448 100
0.7611112 -6.4542427 0.16221532 100
1.0423191 -6.4561801 0.1629612 100
1.303139 -6.4655924 0.15629891 100
1.6428016 -6.4628191 0.15047565 100
1.9545528 -6.4553785 0.18571116 100
2.2488306 -6.4725137 0.17713787 100
2.5348747 -6.4592133 0.1659195 100
2.8539152 -6.4491754 0.15060587 100
3.1494915 -6.4664693 0.17774804 100
3.4680541 -6.4591193 0.21120405 100
3.7433798 -6.4641328 0.17602439 100
4.0442681 -6.4719863 0.16533126 100
4.3606386 -6.4620342 0.17769489 100
4.6684909 -6.4696255 0.18705656 100
4.9593678 -6.4728022 0.17086689 100
5.2743845 -6.4772191 0.18637024 100
5.5230412 -6.476604 0.16210631 100
5.8637466 -6.45822 0.14716378 100
6.1460123 -6.4651284 0.16161932 100
6.4627404 -6.4640288 0.1499811 100
6.7644944 -6.4522338 0.14436929 100
7.0505562 -6.4630857 0.14819659 100
7.3638334 -6.4568138 0.14430472 100
7.6206765 -6.4627128 0.15427254 100
7.9549832 -6.4660707 0.15649463 100
8.2280741 -6.4572778 0.14304262 100
8.524807 -6.3955555 0.14603505 100
8.7953453 -6.3914037 0.22480035 100
9.1937246 -6.3257327 0.25058028 100
9.3258677 -6.3006673 0.28546539 100
10.004936 -6.4683552 0.21764664 100
10.339185 -6.4698434 0.23120303 100
10.750472 -6.4771538 0.24556689 100
10.812595 -6.4663949 0.22776954 100
11.230592 -6.4359646 0.22457932 100
11.534584 -6.4667487 0.23031728 100
11.912067 -6.4694715 0.24503839 100
12.187855 -6.4760909 0.19393891 100
12.303004 -6.4752345 0.25351679 100
12.843356 -6.4767079 0.23852469 100
12.989634 -6.463603 0.22149661 100
13.402238 -6.4782181 0.22817968 100
13.791405 -6.4762831 0.26136619 100
14.02512 -6.470664 0.16350015 100
14.602874 -6.4803228 0.1993984 100
15.838129 -6.4490242 0.17348616 100
16.063593 -6.5225601 0.18802468 100
16.548096 -6.4436288 0.21360026 100
17.400038 -6.4356318 0.16531642 100
18.263687 -6.4397311 0.1859037 100
18.718172 -6.4737082 0.19871998 100
19.615671 -6.4608712 0.16885193 100
20.266657 -6.4818759 0.12302443 100
20.519493 -6.4735665 0.21531694 100
20.807348 -6.4512858 0.19976045 100
-2.6450515 -6.0415959 0.021431258 100
-0.39405206 -6.1382422 0.19027884 100
-0.16021112 -6.1621795 0.053159822 100
0.13920274 -6.151906 0.054400269 100
0.43669182 -6.1588807 0.052278742 100
0.73554921 -6.1331453 0.050902937 100
1.074308 -6.1126847 0.044411745 100
1.360569 -6.1590238 0.048934165 100
1.6153483 -6.2088952 0.052532256 100
1.9581712 -6.1818957 0.051719565 100
2.2694702 -6.037508 0.047267422 100
2.5534508 -6.0052462 0.051048167 100
2.8451762 -6.1546702 0.048136588 100
3.162087 -6.1453419 0.041969799 100
3.5039797 -6.1267262 0.052746218 100
3.7169082 -6.1120415 0.053563986 100
4.0076933 -6.1929054 0.052713849 100
4.3178787 -6.0946379 0.051983811 100
4.6721344 -6.1924505 0.04412736 100
4.9666076 -6.1535935 0.046824396 100
5.1956182 -6.1519809 0.051727805 100
5.5915232 -6.1742749 0.049006604 100
5.8722992 -6.1944132 0.050710827 100
6.1956062 -6.1756802 0.042364709 100
6.4862123 -6.146842 0.043363642 100
6.7478509 -6.1002254 0.05356133 100
7.0412498 -6.1404943 0.041645084 100
7.3515244 -6.111517 0.038632281 100
7.6493669 -6.1219997 0.043727603 100
7.9157634 -6.1260047 0.045585115 100
8.2759171 -6.1532421 0.037181508 100
8.5574512 -6.1086369 0.051857568 100
8.8361292 -6.1570687 0.12844004 100
9.111104 -6.1544633 0.22171929 100
9.6504803 -6.1270361 0.27879462 100
20.855257 -6.2358303 0.104114 100
-2.6471403 -5.9661717 0.068573058 100
-0.39450425 -5.8442359 0.19534349 100
